# .PCD v0.7 - Point Cloud Data file format
VERSION 0.7
FIELDS x y z intensity
SIZE 4 4 4 4
TYPE F F F F
COUNT 1 1 1 1
WIDTH 853
HEIGHT 1
VIEWPOINT 0 0 0 1 0 0 0
POINTS 853
DATA ascii
537949.62500000 6039836.00000000 -34.00000000  7.000000
537950.12500000 6039835.50000000 -34.00000000  7.000000
537949.12500000 6039835.00000000 -34.00000000  7.000000
537948.12500000 6039834.50000000 -34.00000000  7.000000
537948.12500000 6039834.00000000 -34.09999847  7.000000
537948.12500000 6039833.50000000 -34.09999847  7.000000
537948.62500000 6039834.00000000 -34.00000000  7.000000
537948.62500000 6039835.00000000 -34.00000000  7.000000
537949.62500000 6039835.00000000 -33.89999771  7.000000
537949.62500000 6039835.50000000 -33.89999771  7.000000
537950.62500000 6039836.00000000 -33.70000076  7.000000
537950.62500000 6039835.50000000 -33.59999847  7.000000
537951.12500000 6039836.00000000 -33.59999847  7.000000
537950.12500000 6039835.00000000 -33.50000000  7.000000
537950.12500000 6039838.00000000 -34.29999924  7.000000
537951.12500000 6039839.00000000 -34.29999924  7.000000
537951.12500000 6039839.50000000 -34.29999924  7.000000
537951.62500000 6039840.00000000 -34.29999924  7.000000
537952.62500000 6039840.00000000 -34.20000076  7.000000
537952.62500000 6039839.50000000 -34.09999847  7.000000
537953.12500000 6039839.50000000 -34.09999847  7.000000
537953.12500000 6039840.00000000 -34.09999847  7.000000
537953.12500000 6039840.50000000 -34.09999847  7.000000
537952.12500000 6039841.00000000 -34.29999924  7.000000
537952.12500000 6039841.50000000 -34.39999771  7.000000
537952.62500000 6039842.00000000 -34.29999924  7.000000
537952.62500000 6039842.50000000 -34.39999771  7.000000
537953.12500000 6039843.00000000 -34.39999771  7.000000
537953.12500000 6039843.50000000 -34.50000000  7.000000
537953.62500000 6039844.00000000 -34.50000000  7.000000
537953.62500000 6039843.50000000 -34.39999771  7.000000
537954.62500000 6039843.00000000 -34.29999924  7.000000
537954.12500000 6039842.50000000 -34.29999924  7.000000
537953.12500000 6039842.50000000 -34.29999924  7.000000
537954.12500000 6039842.00000000 -34.20000076  7.000000
537954.62500000 6039842.00000000 -34.20000076  7.000000
537954.62500000 6039842.50000000 -34.20000076  7.000000
537955.12500000 6039843.00000000 -34.20000076  7.000000
537955.12500000 6039843.50000000 -34.29999924  7.000000
537955.12500000 6039844.00000000 -34.29999924  7.000000
537955.62500000 6039844.00000000 -34.20000076  7.000000
537955.62500000 6039844.50000000 -34.20000076  7.000000
537956.12500000 6039845.00000000 -34.20000076  7.000000
537956.12500000 6039844.50000000 -34.09999847  7.000000
537956.12500000 6039844.00000000 -34.00000000  7.000000
537955.62500000 6039843.50000000 -34.09999847  7.000000
537955.62500000 6039843.00000000 -34.00000000  7.000000
537955.12500000 6039842.50000000 -34.09999847  7.000000
537955.12500000 6039842.00000000 -34.09999847  7.000000
537954.12500000 6039841.50000000 -34.09999847  7.000000
537953.62500000 6039841.00000000 -34.09999847  7.000000
537953.62500000 6039840.50000000 -34.09999847  7.000000
537954.12500000 6039841.00000000 -34.09999847  7.000000
537953.62500000 6039841.50000000 -34.09999847  7.000000
537954.62500000 6039841.50000000 -34.00000000  7.000000
537955.12500000 6039841.50000000 -34.00000000  7.000000
537955.62500000 6039842.00000000 -33.89999771  7.000000
537955.62500000 6039842.50000000 -34.00000000  7.000000
537956.12500000 6039842.50000000 -33.70000076  7.000000
537956.12500000 6039843.00000000 -33.70000076  7.000000
537956.12500000 6039843.50000000 -33.79999924  7.000000
537956.62500000 6039844.00000000 -33.70000076  7.000000
537956.62500000 6039844.50000000 -33.89999771  7.000000
537956.62500000 6039845.00000000 -33.89999771  7.000000
537956.62500000 6039845.50000000 -34.00000000  7.000000
537956.62500000 6039846.00000000 -34.00000000  7.000000
537957.12500000 6039845.50000000 -33.79999924  7.000000
537957.12500000 6039845.00000000 -33.79999924  7.000000
537957.12500000 6039844.50000000 -33.70000076  7.000000
537957.62500000 6039845.00000000 -33.59999847  7.000000
537957.62500000 6039845.50000000 -33.70000076  7.000000
537957.12500000 6039846.00000000 -33.79999924  7.000000
537957.12500000 6039846.50000000 -33.79999924  7.000000
537957.62500000 6039846.00000000 -33.70000076  7.000000
537957.62500000 6039846.50000000 -33.70000076  7.000000
537957.12500000 6039847.00000000 -33.70000076  7.000000
537956.62500000 6039847.50000000 -33.89999771  7.000000
537956.62500000 6039848.00000000 -34.09999847  7.000000
537956.12500000 6039847.50000000 -34.29999924  7.000000
537955.62500000 6039847.00000000 -34.50000000  7.000000
537955.62500000 6039846.50000000 -34.50000000  7.000000
537955.12500000 6039846.00000000 -34.50000000  7.000000
537955.12500000 6039845.50000000 -34.50000000  7.000000
537954.62500000 6039845.00000000 -34.50000000  7.000000
537955.62500000 6039846.00000000 -34.39999771  7.000000
537956.12500000 6039846.50000000 -34.29999924  7.000000
537956.12500000 6039847.00000000 -34.29999924  7.000000
537956.12500000 6039848.00000000 -34.39999771  7.000000
537956.12500000 6039848.50000000 -34.50000000  7.000000
537956.12500000 6039849.00000000 -34.50000000  7.000000
537956.62500000 6039849.50000000 -34.50000000  7.000000
537957.12500000 6039850.00000000 -34.59999847  7.000000
537957.62500000 6039850.50000000 -34.59999847  7.000000
537957.62500000 6039851.00000000 -34.59999847  7.000000
537958.12500000 6039851.50000000 -34.50000000  7.000000
537958.12500000 6039851.00000000 -34.39999771  7.000000
537958.62500000 6039852.00000000 -34.39999771  7.000000
537958.62500000 6039852.50000000 -34.50000000  7.000000
537958.62500000 6039853.00000000 -34.59999847  7.000000
537958.62500000 6039853.50000000 -34.59999847  7.000000
537958.62500000 6039854.00000000 -34.59999847  7.000000
537959.12500000 6039853.00000000 -34.50000000  7.000000
537957.12500000 6039849.50000000 -34.39999771  7.000000
537956.62500000 6039849.00000000 -34.39999771  7.000000
537956.62500000 6039848.50000000 -34.20000076  7.000000
537957.12500000 6039849.00000000 -34.00000000  7.000000
537957.12500000 6039848.50000000 -33.79999924  7.000000
537957.12500000 6039848.00000000 -33.70000076  7.000000
537957.62500000 6039847.50000000 -33.59999847  7.000000
537957.62500000 6039847.00000000 -33.59999847  7.000000
537958.12500000 6039846.50000000 -33.59999847  7.000000
537958.12500000 6039846.00000000 -33.59999847  7.000000
537958.12500000 6039845.50000000 -33.39999771  7.000000
537958.12500000 6039847.00000000 -33.59999847  7.000000
537958.12500000 6039847.50000000 -33.50000000  7.000000
537958.12500000 6039848.00000000 -33.50000000  7.000000
537958.62500000 6039847.50000000 -33.39999771  7.000000
537958.62500000 6039847.00000000 -33.39999771  7.000000
537958.62500000 6039846.50000000 -33.20000076  7.000000
537959.12500000 6039847.00000000 -33.09999847  7.000000
537959.12500000 6039847.50000000 -33.20000076  7.000000
537958.62500000 6039848.00000000 -33.39999771  7.000000
537958.62500000 6039848.50000000 -33.39999771  7.000000
537959.12500000 6039849.00000000 -33.39999771  7.000000
537958.12500000 6039849.50000000 -33.59999847  7.000000
537957.62500000 6039849.50000000 -33.79999924  7.000000
537957.62500000 6039849.00000000 -33.70000076  7.000000
537958.12500000 6039850.00000000 -33.70000076  7.000000
537958.12500000 6039850.50000000 -33.79999924  7.000000
537958.62500000 6039851.00000000 -33.70000076  7.000000
537958.62500000 6039851.50000000 -33.79999924  7.000000
537959.12500000 6039852.00000000 -33.70000076  7.000000
537959.12500000 6039852.50000000 -33.79999924  7.000000
537959.62500000 6039853.00000000 -33.70000076  7.000000
537959.12500000 6039853.50000000 -33.79999924  7.000000
537959.62500000 6039853.50000000 -33.70000076  7.000000
537959.12500000 6039854.00000000 -33.70000076  7.000000
537959.62500000 6039854.00000000 -33.70000076  7.000000
537959.62500000 6039854.50000000 -33.59999847  7.000000
537960.12500000 6039855.00000000 -33.59999847  7.000000
537959.62500000 6039852.50000000 -33.59999847  7.000000
537960.62500000 6039852.00000000 -33.39999771  7.000000
537960.62500000 6039851.50000000 -33.29999924  7.000000
537960.12500000 6039851.00000000 -33.29999924  7.000000
537959.12500000 6039851.00000000 -33.50000000  7.000000
537958.62500000 6039850.50000000 -33.59999847  7.000000
537958.62500000 6039850.00000000 -33.59999847  7.000000
537959.12500000 6039849.50000000 -33.39999771  7.000000
537959.62500000 6039850.00000000 -33.39999771  7.000000
537959.62500000 6039849.50000000 -33.29999924  7.000000
537959.62500000 6039849.00000000 -33.29999924  7.000000
537959.12500000 6039848.50000000 -33.29999924  7.000000
537959.12500000 6039848.00000000 -33.29999924  7.000000
537959.62500000 6039848.50000000 -33.20000076  7.000000
537960.12500000 6039849.00000000 -33.20000076  7.000000
537960.12500000 6039849.50000000 -33.20000076  7.000000
537960.12500000 6039850.00000000 -33.29999924  7.000000
537960.12500000 6039850.50000000 -33.29999924  7.000000
537960.62500000 6039851.00000000 -33.29999924  7.000000
537961.12500000 6039851.50000000 -33.29999924  7.000000
537961.12500000 6039852.00000000 -33.29999924  7.000000
537961.12500000 6039852.50000000 -33.29999924  7.000000
537961.12500000 6039853.00000000 -33.39999771  7.000000
537961.12500000 6039853.50000000 -33.39999771  7.000000
537961.62500000 6039854.00000000 -33.39999771  7.000000
537962.12500000 6039854.50000000 -33.50000000  7.000000
537962.12500000 6039855.00000000 -33.50000000  7.000000
537962.62500000 6039855.50000000 -33.59999847  7.000000
537962.62500000 6039855.00000000 -33.50000000  7.000000
537963.12500000 6039855.50000000 -33.39999771  7.000000
537963.12500000 6039856.00000000 -33.50000000  7.000000
537963.12500000 6039856.50000000 -33.59999847  7.000000
537963.62500000 6039857.00000000 -33.59999847  7.000000
537963.62500000 6039856.50000000 -33.50000000  7.000000
537963.62500000 6039856.00000000 -33.39999771  7.000000
537963.62500000 6039855.50000000 -33.29999924  7.000000
537963.12500000 6039855.00000000 -33.29999924  7.000000
537962.62500000 6039854.50000000 -33.29999924  7.000000
537962.12500000 6039854.00000000 -33.29999924  7.000000
537961.62500000 6039853.50000000 -33.29999924  7.000000
537961.62500000 6039853.00000000 -33.29999924  7.000000
537961.62500000 6039852.50000000 -33.20000076  7.000000
537961.62500000 6039852.00000000 -33.20000076  7.000000
537961.62500000 6039851.50000000 -33.20000076  7.000000
537961.12500000 6039851.00000000 -33.20000076  7.000000
537960.62500000 6039850.50000000 -33.20000076  7.000000
537960.62500000 6039850.00000000 -33.20000076  7.000000
537961.12500000 6039850.50000000 -33.20000076  7.000000
537961.62500000 6039851.00000000 -33.20000076  7.000000
537961.62500000 6039850.50000000 -33.09999847  7.000000
537961.12500000 6039850.00000000 -33.09999847  7.000000
537960.62500000 6039849.50000000 -33.09999847  7.000000
537960.62500000 6039849.00000000 -33.00000000  7.000000
537960.12500000 6039848.50000000 -33.00000000  7.000000
537959.62500000 6039848.00000000 -33.09999847  7.000000
537959.62500000 6039847.50000000 -33.00000000  7.000000
537960.12500000 6039848.00000000 -32.89999771  7.000000
537960.62500000 6039848.50000000 -32.89999771  7.000000
537961.12500000 6039849.00000000 -32.79999924  7.000000
537961.12500000 6039849.50000000 -33.00000000  7.000000
537961.62500000 6039850.00000000 -33.00000000  7.000000
537962.12500000 6039850.50000000 -33.00000000  7.000000
537962.12500000 6039851.00000000 -33.09999847  7.000000
537962.12500000 6039851.50000000 -33.09999847  7.000000
537962.12500000 6039852.00000000 -33.09999847  7.000000
537962.12500000 6039852.50000000 -33.09999847  7.000000
537962.12500000 6039853.00000000 -33.20000076  7.000000
537962.12500000 6039853.50000000 -33.20000076  7.000000
537962.62500000 6039854.00000000 -33.20000076  7.000000
537963.12500000 6039854.50000000 -33.20000076  7.000000
537963.12500000 6039854.00000000 -33.09999847  7.000000
537962.62500000 6039853.50000000 -33.09999847  7.000000
537962.62500000 6039853.00000000 -33.09999847  7.000000
537962.62500000 6039852.50000000 -33.00000000  7.000000
537962.62500000 6039852.00000000 -33.00000000  7.000000
537962.62500000 6039851.50000000 -33.00000000  7.000000
537962.62500000 6039851.00000000 -32.89999771  7.000000
537962.62500000 6039850.50000000 -32.70000076  7.000000
537962.12500000 6039850.00000000 -32.70000076  7.000000
537961.62500000 6039849.50000000 -32.79999924  7.000000
537961.62500000 6039849.00000000 -32.59999847  7.000000
537961.12500000 6039848.50000000 -32.70000076  7.000000
537960.62500000 6039848.00000000 -32.70000076  7.000000
537960.12500000 6039847.50000000 -32.70000076  7.000000
537959.62500000 6039847.00000000 -32.70000076  7.000000
537959.12500000 6039846.50000000 -32.79999924  7.000000
537958.62500000 6039846.00000000 -33.00000000  7.000000
537959.12500000 6039846.00000000 -32.70000076  7.000000
537958.62500000 6039845.50000000 -32.70000076  7.000000
537958.12500000 6039845.00000000 -32.79999924  7.000000
537957.62500000 6039844.50000000 -32.89999771  7.000000
537957.62500000 6039844.00000000 -32.79999924  7.000000
537957.12500000 6039843.50000000 -32.89999771  7.000000
537956.62500000 6039843.00000000 -33.00000000  7.000000
537956.62500000 6039842.50000000 -32.79999924  7.000000
537956.12500000 6039842.00000000 -32.79999924  7.000000
537955.62500000 6039841.50000000 -32.89999771  7.000000
537955.12500000 6039841.00000000 -32.89999771  7.000000
537954.62500000 6039840.50000000 -33.00000000  7.000000
537954.62500000 6039840.00000000 -32.89999771  7.000000
537954.12500000 6039839.50000000 -32.89999771  7.000000
537953.12500000 6039839.00000000 -33.09999847  7.000000
537952.12500000 6039839.00000000 -33.09999847  7.000000
537952.62500000 6039839.00000000 -33.09999847  7.000000
537952.12500000 6039839.50000000 -33.09999847  7.000000
537952.12500000 6039840.00000000 -33.09999847  7.000000
537952.12500000 6039840.50000000 -33.09999847  7.000000
537951.62500000 6039839.50000000 -33.00000000  7.000000
537951.62500000 6039839.00000000 -33.00000000  7.000000
537951.62500000 6039838.50000000 -33.00000000  7.000000
537951.62500000 6039838.00000000 -33.00000000  7.000000
537950.62500000 6039837.50000000 -33.09999847  7.000000
537951.12500000 6039837.00000000 -33.09999847  7.000000
537950.12500000 6039837.50000000 -33.09999847  7.000000
537949.62500000 6039837.50000000 -33.09999847  7.000000
537951.12500000 6039837.50000000 -33.09999847  7.000000
537951.62500000 6039837.00000000 -33.00000000  7.000000
537951.62500000 6039836.50000000 -33.00000000  7.000000
537951.62500000 6039836.00000000 -33.00000000  7.000000
537951.12500000 6039835.50000000 -33.09999847  7.000000
537952.12500000 6039836.50000000 -32.79999924  7.000000
537952.12500000 6039837.00000000 -32.89999771  7.000000
537951.62500000 6039837.50000000 -33.00000000  7.000000
537952.12500000 6039838.00000000 -33.00000000  7.000000
537952.12500000 6039838.50000000 -33.00000000  7.000000
537952.62500000 6039838.50000000 -33.00000000  7.000000
537952.62500000 6039838.00000000 -32.89999771  7.000000
537952.12500000 6039837.50000000 -32.89999771  7.000000
537952.62500000 6039837.50000000 -32.70000076  7.000000
537952.62500000 6039837.00000000 -32.59999847  7.000000
537952.62500000 6039836.50000000 -32.59999847  7.000000
537952.12500000 6039836.00000000 -32.70000076  7.000000
537951.62500000 6039835.50000000 -32.70000076  7.000000
537950.62500000 6039835.00000000 -32.79999924  7.000000
537949.62500000 6039834.50000000 -32.89999771  7.000000
537949.12500000 6039834.50000000 -33.00000000  7.000000
537949.12500000 6039834.00000000 -32.89999771  7.000000
537948.62500000 6039833.50000000 -32.89999771  7.000000
537948.12500000 6039833.00000000 -32.89999771  7.000000
537947.12500000 6039832.50000000 -33.00000000  7.000000
537947.62500000 6039832.50000000 -32.89999771  7.000000
537947.12500000 6039832.00000000 -32.79999924  7.000000
537947.62500000 6039832.00000000 -32.79999924  7.000000
537948.12500000 6039832.50000000 -32.79999924  7.000000
537948.62500000 6039833.00000000 -32.79999924  7.000000
537949.12500000 6039833.50000000 -32.79999924  7.000000
537949.62500000 6039834.00000000 -32.79999924  7.000000
537950.12500000 6039834.50000000 -32.79999924  7.000000
537950.12500000 6039834.00000000 -32.59999847  7.000000
537949.62500000 6039833.50000000 -32.70000076  7.000000
537949.12500000 6039833.00000000 -32.70000076  7.000000
537948.62500000 6039832.50000000 -32.70000076  7.000000
537948.12500000 6039832.00000000 -32.70000076  7.000000
537947.12500000 6039831.50000000 -32.70000076  7.000000
537947.62500000 6039831.50000000 -32.70000076  7.000000
537948.62500000 6039832.00000000 -32.70000076  7.000000
537948.12500000 6039831.50000000 -32.59999847  7.000000
537947.12500000 6039831.00000000 -32.59999847  7.000000
537947.62500000 6039831.00000000 -32.59999847  7.000000
537948.12500000 6039831.00000000 -32.59999847  7.000000
537948.62500000 6039831.50000000 -32.59999847  7.000000
537949.12500000 6039832.00000000 -32.59999847  7.000000
537949.12500000 6039832.50000000 -32.59999847  7.000000
537949.62500000 6039832.50000000 -32.59999847  7.000000
537949.62500000 6039833.00000000 -32.59999847  7.000000
537950.12500000 6039833.50000000 -32.59999847  7.000000
537950.12500000 6039833.00000000 -32.50000000  7.000000
537950.12500000 6039832.50000000 -32.50000000  7.000000
537949.62500000 6039832.00000000 -32.50000000  7.000000
537949.12500000 6039831.50000000 -32.50000000  7.000000
537948.62500000 6039831.00000000 -32.50000000  7.000000
537949.12500000 6039831.00000000 -32.50000000  7.000000
537949.62500000 6039831.00000000 -32.50000000  7.000000
537949.62500000 6039831.50000000 -32.50000000  7.000000
537950.12500000 6039831.00000000 -32.39999771  7.000000
537950.62500000 6039831.00000000 -32.39999771  7.000000
537950.12500000 6039831.50000000 -32.39999771  7.000000
537950.12500000 6039832.00000000 -32.39999771  7.000000
537950.62500000 6039832.50000000 -32.29999924  7.000000
537950.62500000 6039833.00000000 -32.39999771  7.000000
537950.62500000 6039833.50000000 -32.50000000  7.000000
537950.62500000 6039834.00000000 -32.50000000  7.000000
537950.62500000 6039834.50000000 -32.59999847  7.000000
537951.12500000 6039835.00000000 -32.59999847  7.000000
537951.12500000 6039834.50000000 -32.50000000  7.000000
537951.62500000 6039835.00000000 -32.50000000  7.000000
537952.12500000 6039835.00000000 -32.50000000  7.000000
537952.12500000 6039835.50000000 -32.50000000  7.000000
537952.62500000 6039836.00000000 -32.50000000  7.000000
537953.12500000 6039836.00000000 -32.50000000  7.000000
537953.62500000 6039836.00000000 -32.50000000  7.000000
537953.12500000 6039836.50000000 -32.50000000  7.000000
537953.62500000 6039836.50000000 -32.50000000  7.000000
537953.12500000 6039837.00000000 -32.50000000  7.000000
537953.12500000 6039837.50000000 -32.59999847  7.000000
537953.12500000 6039838.00000000 -32.59999847  7.000000
537953.62500000 6039838.50000000 -32.59999847  7.000000
537954.12500000 6039839.00000000 -32.70000076  7.000000
537953.12500000 6039838.50000000 -32.89999771  7.000000
537953.62500000 6039839.00000000 -32.89999771  7.000000
537954.62500000 6039839.50000000 -32.70000076  7.000000
537955.12500000 6039840.00000000 -32.70000076  7.000000
537955.12500000 6039840.50000000 -32.79999924  7.000000
537955.62500000 6039841.00000000 -32.70000076  7.000000
537956.12500000 6039841.50000000 -32.70000076  7.000000
537956.62500000 6039842.00000000 -32.59999847  7.000000
537957.12500000 6039842.50000000 -32.59999847  7.000000
537957.12500000 6039843.00000000 -32.70000076  7.000000
537957.62500000 6039843.50000000 -32.70000076  7.000000
537957.62500000 6039843.00000000 -32.59999847  7.000000
537957.62500000 6039842.50000000 -32.50000000  7.000000
537957.12500000 6039842.00000000 -32.50000000  7.000000
537956.62500000 6039841.50000000 -32.50000000  7.000000
537956.12500000 6039841.00000000 -32.50000000  7.000000
537955.62500000 6039840.50000000 -32.59999847  7.000000
537955.62500000 6039840.00000000 -32.50000000  7.000000
537955.12500000 6039839.50000000 -32.50000000  7.000000
537954.62500000 6039839.00000000 -32.50000000  7.000000
537954.12500000 6039838.50000000 -32.50000000  7.000000
537953.62500000 6039838.00000000 -32.50000000  7.000000
537953.62500000 6039837.50000000 -32.50000000  7.000000
537953.62500000 6039837.00000000 -32.50000000  7.000000
537954.12500000 6039837.00000000 -32.50000000  7.000000
537954.12500000 6039836.50000000 -32.39999771  7.000000
537954.12500000 6039836.00000000 -32.39999771  7.000000
537953.12500000 6039835.50000000 -32.39999771  7.000000
537952.62500000 6039835.00000000 -32.39999771  7.000000
537951.62500000 6039834.50000000 -32.39999771  7.000000
537951.12500000 6039834.00000000 -32.39999771  7.000000
537952.12500000 6039834.50000000 -32.39999771  7.000000
537953.12500000 6039834.50000000 -32.39999771  7.000000
537953.12500000 6039835.00000000 -32.39999771  7.000000
537953.62500000 6039835.00000000 -32.39999771  7.000000
537952.62500000 6039835.50000000 -32.39999771  7.000000
537953.62500000 6039835.50000000 -32.39999771  7.000000
537954.12500000 6039835.50000000 -32.39999771  7.000000
537954.12500000 6039835.00000000 -32.29999924  7.000000
537953.62500000 6039834.50000000 -32.29999924  7.000000
537952.62500000 6039834.00000000 -32.29999924  7.000000
537951.62500000 6039834.00000000 -32.29999924  7.000000
537951.12500000 6039833.50000000 -32.29999924  7.000000
537952.12500000 6039834.00000000 -32.29999924  7.000000
537953.12500000 6039834.00000000 -32.29999924  7.000000
537952.62500000 6039834.50000000 -32.29999924  7.000000
537953.62500000 6039834.00000000 -32.20000076  7.000000
537952.62500000 6039833.50000000 -32.20000076  7.000000
537953.12500000 6039833.00000000 -32.20000076  7.000000
537953.12500000 6039833.50000000 -32.20000076  7.000000
537952.62500000 6039833.00000000 -32.09999847  7.000000
537951.62500000 6039833.50000000 -32.20000076  7.000000
537951.12500000 6039833.00000000 -32.20000076  7.000000
537951.12500000 6039832.50000000 -32.09999847  7.000000
537950.62500000 6039832.00000000 -32.20000076  7.000000
537950.62500000 6039831.50000000 -32.20000076  7.000000
537951.12500000 6039832.00000000 -32.09999847  7.000000
537951.12500000 6039831.50000000 -32.00000000  7.000000
537951.12500000 6039831.00000000 -32.00000000  7.000000
537951.62500000 6039831.00000000 -32.00000000  7.000000
537952.12500000 6039831.00000000 -31.89999962  7.000000
537951.62500000 6039831.50000000 -31.89999962  7.000000
537951.62500000 6039832.00000000 -32.00000000  7.000000
537951.62500000 6039832.50000000 -32.00000000  7.000000
537951.62500000 6039833.00000000 -32.09999847  7.000000
537952.12500000 6039833.50000000 -32.09999847  7.000000
537952.12500000 6039833.00000000 -32.00000000  7.000000
537952.12500000 6039832.50000000 -32.00000000  7.000000
537952.62500000 6039832.50000000 -32.00000000  7.000000
537953.12500000 6039832.50000000 -32.00000000  7.000000
537953.62500000 6039832.50000000 -32.00000000  7.000000
537953.62500000 6039833.00000000 -32.00000000  7.000000
537953.62500000 6039833.50000000 -32.09999847  7.000000
537954.12500000 6039834.00000000 -32.09999847  7.000000
537954.12500000 6039834.50000000 -32.20000076  7.000000
537954.62500000 6039835.00000000 -32.09999847  7.000000
537954.62500000 6039835.50000000 -32.20000076  7.000000
537954.62500000 6039836.00000000 -32.29999924  7.000000
537954.62500000 6039836.50000000 -32.39999771  7.000000
537954.62500000 6039837.00000000 -32.39999771  7.000000
537954.12500000 6039837.50000000 -32.39999771  7.000000
537954.62500000 6039837.50000000 -32.39999771  7.000000
537954.12500000 6039838.00000000 -32.39999771  7.000000
537954.62500000 6039838.50000000 -32.39999771  7.000000
537955.12500000 6039839.00000000 -32.39999771  7.000000
537955.62500000 6039839.50000000 -32.39999771  7.000000
537956.12500000 6039840.00000000 -32.39999771  7.000000
537956.12500000 6039840.50000000 -32.39999771  7.000000
537956.62500000 6039841.00000000 -32.39999771  7.000000
537957.12500000 6039841.50000000 -32.39999771  7.000000
537957.62500000 6039842.00000000 -32.39999771  7.000000
537958.12500000 6039842.50000000 -32.39999771  7.000000
537958.12500000 6039843.00000000 -32.39999771  7.000000
537958.12500000 6039843.50000000 -32.50000000  7.000000
537958.12500000 6039844.00000000 -32.59999847  7.000000
537958.12500000 6039844.50000000 -32.70000076  7.000000
537958.62500000 6039845.00000000 -32.59999847  7.000000
537958.62500000 6039844.50000000 -32.50000000  7.000000
537958.62500000 6039844.00000000 -32.39999771  7.000000
537958.62500000 6039843.50000000 -32.39999771  7.000000
537958.62500000 6039843.00000000 -32.29999924  7.000000
537958.62500000 6039842.50000000 -32.20000076  7.000000
537958.12500000 6039842.00000000 -32.29999924  7.000000
537957.62500000 6039841.50000000 -32.29999924  7.000000
537957.12500000 6039841.00000000 -32.29999924  7.000000
537956.62500000 6039840.50000000 -32.29999924  7.000000
537956.62500000 6039840.00000000 -32.29999924  7.000000
537956.12500000 6039839.50000000 -32.29999924  7.000000
537955.62500000 6039839.00000000 -32.20000076  7.000000
537955.12500000 6039838.50000000 -32.20000076  7.000000
537954.62500000 6039838.00000000 -32.29999924  7.000000
537955.12500000 6039837.50000000 -32.20000076  7.000000
537955.12500000 6039837.00000000 -32.29999924  7.000000
537955.12500000 6039836.50000000 -32.20000076  7.000000
537955.12500000 6039836.00000000 -32.09999847  7.000000
537955.12500000 6039835.50000000 -32.00000000  7.000000
537955.12500000 6039835.00000000 -31.89999962  7.000000
537954.62500000 6039834.50000000 -32.00000000  7.000000
537954.62500000 6039834.00000000 -31.89999962  7.000000
537954.12500000 6039833.50000000 -32.00000000  7.000000
537954.12500000 6039833.00000000 -31.89999962  7.000000
537954.12500000 6039832.50000000 -31.79999924  7.000000
537953.12500000 6039832.00000000 -31.89999962  7.000000
537952.12500000 6039831.50000000 -31.89999962  7.000000
537952.12500000 6039832.00000000 -31.89999962  7.000000
537952.62500000 6039832.00000000 -31.89999962  7.000000
537953.62500000 6039832.00000000 -31.89999962  7.000000
537952.62500000 6039831.50000000 -31.79999924  7.000000
537952.62500000 6039831.00000000 -31.79999924  7.000000
537953.12500000 6039831.50000000 -31.79999924  7.000000
537953.12500000 6039831.00000000 -31.69999886  7.000000
537953.62500000 6039831.50000000 -31.69999886  7.000000
537954.12500000 6039832.00000000 -31.69999886  7.000000
537954.62500000 6039832.50000000 -31.69999886  7.000000
537954.62500000 6039833.00000000 -31.69999886  7.000000
537954.62500000 6039833.50000000 -31.79999924  7.000000
537955.12500000 6039834.00000000 -31.69999886  7.000000
537955.12500000 6039834.50000000 -31.89999962  7.000000
537955.62500000 6039835.00000000 -31.79999924  7.000000
537955.62500000 6039835.50000000 -31.89999962  7.000000
537955.62500000 6039836.00000000 -31.89999962  7.000000
537955.62500000 6039836.50000000 -31.89999962  7.000000
537955.62500000 6039837.00000000 -31.89999962  7.000000
537955.62500000 6039837.50000000 -31.89999962  7.000000
537955.62500000 6039838.00000000 -32.00000000  7.000000
537955.12500000 6039838.00000000 -32.20000076  7.000000
537955.62500000 6039838.50000000 -32.09999847  7.000000
537956.12500000 6039839.00000000 -32.09999847  7.000000
537956.62500000 6039839.50000000 -32.09999847  7.000000
537957.12500000 6039840.00000000 -32.09999847  7.000000
537957.12500000 6039840.50000000 -32.20000076  7.000000
537957.62500000 6039841.00000000 -32.20000076  7.000000
537957.62500000 6039840.50000000 -32.09999847  7.000000
537957.62500000 6039840.00000000 -32.00000000  7.000000
537957.12500000 6039839.50000000 -32.00000000  7.000000
537956.62500000 6039839.00000000 -32.00000000  7.000000
537956.12500000 6039838.50000000 -31.89999962  7.000000
537957.12500000 6039839.00000000 -31.89999962  7.000000
537957.62500000 6039839.50000000 -31.89999962  7.000000
537957.62500000 6039839.00000000 -31.79999924  7.000000
537956.62500000 6039838.50000000 -31.79999924  7.000000
537956.12500000 6039838.00000000 -31.79999924  7.000000
537956.12500000 6039837.50000000 -31.79999924  7.000000
537956.12500000 6039837.00000000 -31.79999924  7.000000
537956.12500000 6039836.50000000 -31.79999924  7.000000
537956.12500000 6039836.00000000 -31.79999924  7.000000
537956.12500000 6039835.50000000 -31.69999886  7.000000
537956.12500000 6039835.00000000 -31.59999847  7.000000
537955.62500000 6039834.50000000 -31.69999886  7.000000
537955.62500000 6039834.00000000 -31.59999847  7.000000
537955.12500000 6039833.50000000 -31.59999847  7.000000
537955.12500000 6039833.00000000 -31.59999847  7.000000
537955.12500000 6039832.50000000 -31.50000000  7.000000
537954.62500000 6039832.00000000 -31.59999847  7.000000
537954.12500000 6039831.50000000 -31.50000000  7.000000
537953.62500000 6039831.00000000 -31.59999847  7.000000
537954.12500000 6039831.00000000 -31.39999962  7.000000
537954.62500000 6039831.50000000 -31.39999962  7.000000
537954.62500000 6039831.00000000 -31.29999924  7.000000
537955.12500000 6039831.00000000 -31.19999886  7.000000
537955.12500000 6039831.50000000 -31.19999886  7.000000
537955.12500000 6039832.00000000 -31.29999924  7.000000
537955.62500000 6039832.50000000 -31.29999924  7.000000
537955.62500000 6039833.00000000 -31.39999962  7.000000
537955.62500000 6039833.50000000 -31.50000000  7.000000
537956.12500000 6039834.00000000 -31.39999962  7.000000
537956.12500000 6039834.50000000 -31.50000000  7.000000
537956.62500000 6039834.50000000 -31.39999962  7.000000
537956.62500000 6039835.00000000 -31.39999962  7.000000
537956.62500000 6039835.50000000 -31.50000000  7.000000
537956.62500000 6039836.00000000 -31.59999847  7.000000
537956.62500000 6039836.50000000 -31.59999847  7.000000
537956.62500000 6039837.00000000 -31.59999847  7.000000
537956.62500000 6039837.50000000 -31.69999886  7.000000
537956.62500000 6039838.00000000 -31.69999886  7.000000
537957.12500000 6039838.50000000 -31.79999924  7.000000
537957.62500000 6039838.50000000 -31.69999886  7.000000
537958.12500000 6039839.00000000 -31.69999886  7.000000
537958.12500000 6039839.50000000 -31.79999924  7.000000
537958.12500000 6039840.00000000 -31.79999924  7.000000
537958.12500000 6039840.50000000 -31.89999962  7.000000
537958.12500000 6039841.00000000 -32.00000000  7.000000
537958.12500000 6039841.50000000 -32.09999847  7.000000
537958.62500000 6039842.00000000 -32.09999847  7.000000
537958.62500000 6039841.50000000 -32.00000000  7.000000
537958.62500000 6039841.00000000 -31.89999962  7.000000
537958.62500000 6039840.50000000 -31.79999924  7.000000
537958.62500000 6039840.00000000 -31.69999886  7.000000
537958.62500000 6039839.50000000 -31.69999886  7.000000
537959.12500000 6039840.00000000 -31.59999847  7.000000
537959.12500000 6039840.50000000 -31.59999847  7.000000
537959.12500000 6039841.00000000 -31.69999886  7.000000
537959.12500000 6039841.50000000 -31.79999924  7.000000
537959.12500000 6039842.00000000 -31.89999962  7.000000
537959.12500000 6039842.50000000 -32.00000000  7.000000
537959.12500000 6039843.00000000 -32.09999847  7.000000
537959.12500000 6039843.50000000 -32.20000076  7.000000
537959.12500000 6039844.00000000 -32.29999924  7.000000
537959.12500000 6039844.50000000 -32.39999771  7.000000
537959.12500000 6039845.00000000 -32.39999771  7.000000
537959.12500000 6039845.50000000 -32.50000000  7.000000
537959.62500000 6039846.00000000 -32.39999771  7.000000
537959.62500000 6039846.50000000 -32.59999847  7.000000
537960.12500000 6039847.00000000 -32.50000000  7.000000
537960.12500000 6039846.50000000 -32.39999771  7.000000
537960.12500000 6039846.00000000 -32.29999924  7.000000
537959.62500000 6039845.50000000 -32.29999924  7.000000
537959.62500000 6039845.00000000 -32.20000076  7.000000
537959.62500000 6039844.50000000 -32.09999847  7.000000
537959.62500000 6039844.00000000 -32.09999847  7.000000
537959.62500000 6039843.50000000 -32.00000000  7.000000
537959.62500000 6039843.00000000 -31.89999962  7.000000
537960.12500000 6039843.50000000 -31.89999962  7.000000
537960.12500000 6039844.00000000 -31.89999962  7.000000
537960.12500000 6039844.50000000 -32.00000000  7.000000
537960.12500000 6039845.00000000 -32.00000000  7.000000
537960.12500000 6039845.50000000 -32.09999847  7.000000
537960.62500000 6039846.00000000 -32.09999847  7.000000
537960.62500000 6039846.50000000 -32.20000076  7.000000
537960.62500000 6039847.00000000 -32.29999924  7.000000
537960.62500000 6039847.50000000 -32.39999771  7.000000
537961.12500000 6039848.00000000 -32.39999771  7.000000
537961.62500000 6039848.50000000 -32.50000000  7.000000
537962.12500000 6039849.00000000 -32.29999924  7.000000
537962.12500000 6039849.50000000 -32.50000000  7.000000
537962.62500000 6039850.00000000 -32.39999771  7.000000
537963.12500000 6039850.50000000 -32.29999924  7.000000
537963.12500000 6039850.00000000 -32.20000076  7.000000
537962.62500000 6039849.50000000 -32.20000076  7.000000
537962.62500000 6039849.00000000 -32.09999847  7.000000
537962.12500000 6039848.50000000 -32.20000076  7.000000
537961.62500000 6039848.00000000 -32.20000076  7.000000
537961.12500000 6039847.50000000 -32.20000076  7.000000
537961.12500000 6039847.00000000 -32.09999847  7.000000
537961.62500000 6039847.50000000 -32.09999847  7.000000
537962.12500000 6039848.00000000 -32.09999847  7.000000
537962.12500000 6039847.50000000 -32.00000000  7.000000
537961.62500000 6039847.00000000 -32.00000000  7.000000
537961.12500000 6039846.50000000 -32.00000000  7.000000
537961.62500000 6039846.50000000 -32.00000000  7.000000
537962.12500000 6039847.00000000 -32.00000000  7.000000
537962.12500000 6039846.50000000 -31.89999962  7.000000
537961.12500000 6039846.00000000 -31.89999962  7.000000
537960.62500000 6039845.50000000 -32.00000000  7.000000
537960.62500000 6039845.00000000 -31.89999962  7.000000
537960.62500000 6039844.50000000 -31.89999962  7.000000
537960.62500000 6039844.00000000 -31.79999924  7.000000
537960.62500000 6039843.50000000 -31.69999886  7.000000
537960.12500000 6039843.00000000 -31.79999924  7.000000
537959.62500000 6039842.50000000 -31.79999924  7.000000
537959.62500000 6039842.00000000 -31.79999924  7.000000
537959.62500000 6039841.50000000 -31.69999886  7.000000
537959.62500000 6039841.00000000 -31.59999847  7.000000
537960.12500000 6039841.50000000 -31.59999847  7.000000
537960.12500000 6039842.00000000 -31.59999847  7.000000
537960.12500000 6039842.50000000 -31.69999886  7.000000
537960.62500000 6039843.00000000 -31.69999886  7.000000
537960.62500000 6039842.50000000 -31.59999847  7.000000
537960.62500000 6039842.00000000 -31.50000000  7.000000
537961.12500000 6039842.50000000 -31.50000000  7.000000
537961.12500000 6039843.00000000 -31.50000000  7.000000
537961.12500000 6039843.50000000 -31.59999847  7.000000
537961.12500000 6039844.00000000 -31.69999886  7.000000
537961.12500000 6039844.50000000 -31.69999886  7.000000
537961.12500000 6039845.00000000 -31.79999924  7.000000
537961.12500000 6039845.50000000 -31.89999962  7.000000
537961.62500000 6039846.00000000 -31.89999962  7.000000
537961.62500000 6039845.50000000 -31.79999924  7.000000
537962.12500000 6039846.00000000 -31.79999924  7.000000
537962.62500000 6039846.50000000 -31.79999924  7.000000
537962.62500000 6039847.00000000 -31.89999962  7.000000
537962.62500000 6039847.50000000 -31.89999962  7.000000
537962.62500000 6039848.00000000 -32.00000000  7.000000
537962.62500000 6039848.50000000 -32.00000000  7.000000
537963.12500000 6039849.00000000 -32.00000000  7.000000
537963.12500000 6039849.50000000 -32.09999847  7.000000
537963.62500000 6039850.00000000 -32.00000000  7.000000
537963.62500000 6039850.50000000 -32.09999847  7.000000
537963.62500000 6039851.00000000 -32.20000076  7.000000
537963.62500000 6039851.50000000 -32.20000076  7.000000
537963.62500000 6039852.00000000 -32.29999924  7.000000
537963.62500000 6039852.50000000 -32.50000000  7.000000
537963.62500000 6039853.00000000 -32.70000076  7.000000
537963.12500000 6039852.50000000 -32.89999771  7.000000
537963.12500000 6039853.00000000 -32.89999771  7.000000
537963.12500000 6039853.50000000 -33.00000000  7.000000
537963.62500000 6039853.50000000 -32.89999771  7.000000
537963.62500000 6039854.00000000 -32.89999771  7.000000
537963.62500000 6039854.50000000 -33.00000000  7.000000
537963.62500000 6039855.00000000 -33.09999847  7.000000
537964.12500000 6039855.50000000 -33.09999847  7.000000
537964.12500000 6039856.00000000 -33.20000076  7.000000
537964.12500000 6039856.50000000 -33.29999924  7.000000
537964.12500000 6039857.00000000 -33.39999771  7.000000
537964.12500000 6039857.50000000 -33.50000000  7.000000
537964.12500000 6039858.00000000 -33.59999847  7.000000
537964.62500000 6039858.50000000 -33.50000000  7.000000
537964.62500000 6039859.00000000 -33.59999847  7.000000
537965.12500000 6039859.00000000 -33.39999771  7.000000
537965.12500000 6039859.50000000 -33.39999771  7.000000
537965.62500000 6039859.50000000 -33.29999924  7.000000
537965.62500000 6039860.00000000 -33.29999924  7.000000
537965.62500000 6039860.50000000 -33.39999771  7.000000
537965.62500000 6039861.00000000 -33.50000000  7.000000
537966.12500000 6039861.50000000 -33.39999771  7.000000
537966.12500000 6039862.00000000 -33.39999771  7.000000
537966.12500000 6039862.50000000 -33.50000000  7.000000
537966.62500000 6039863.00000000 -33.39999771  7.000000
537966.62500000 6039863.50000000 -33.50000000  7.000000
537967.12500000 6039864.00000000 -33.39999771  7.000000
537967.12500000 6039864.50000000 -33.39999771  7.000000
537967.12500000 6039865.00000000 -33.50000000  7.000000
537967.62500000 6039865.50000000 -33.50000000  7.000000
537967.12500000 6039866.00000000 -33.70000076  7.000000
537966.12500000 6039865.50000000 -33.89999771  7.000000
537965.12500000 6039865.00000000 -34.09999847  7.000000
537964.62500000 6039864.50000000 -34.20000076  7.000000
537964.62500000 6039865.00000000 -34.20000076  7.000000
537964.62500000 6039865.50000000 -34.20000076  7.000000
537965.12500000 6039865.50000000 -34.20000076  7.000000
537964.62500000 6039866.00000000 -34.20000076  7.000000
537964.62500000 6039866.50000000 -34.29999924  7.000000
537964.12500000 6039867.00000000 -34.29999924  7.000000
537964.62500000 6039867.50000000 -34.50000000  7.000000
537963.62500000 6039868.00000000 -34.70000076  7.000000
537964.62500000 6039868.00000000 -34.70000076  7.000000
537965.62500000 6039868.00000000 -34.79999924  7.000000
537966.12500000 6039868.00000000 -34.89999771  7.000000
537965.62500000 6039868.50000000 -35.09999847  7.000000
537965.12500000 6039868.50000000 -35.20000076  7.000000
537966.12500000 6039868.50000000 -35.09999847  7.000000
537966.62500000 6039868.50000000 -35.09999847  7.000000
537966.12500000 6039869.00000000 -35.09999847  7.000000
537966.12500000 6039869.50000000 -35.09999847  7.000000
537966.62500000 6039868.00000000 -34.79999924  7.000000
537967.12500000 6039868.00000000 -34.79999924  7.000000
537967.62500000 6039868.00000000 -34.70000076  7.000000
537966.62500000 6039867.50000000 -34.50000000  7.000000
537965.62500000 6039867.50000000 -34.59999847  7.000000
537965.12500000 6039868.00000000 -34.70000076  7.000000
537966.12500000 6039867.50000000 -34.59999847  7.000000
537965.12500000 6039867.50000000 -34.50000000  7.000000
537964.12500000 6039868.00000000 -34.59999847  7.000000
537964.12500000 6039867.50000000 -34.39999771  7.000000
537964.62500000 6039867.00000000 -34.29999924  7.000000
537965.12500000 6039867.00000000 -34.29999924  7.000000
537965.62500000 6039867.00000000 -34.29999924  7.000000
537966.12500000 6039867.00000000 -34.29999924  7.000000
537967.12500000 6039867.50000000 -34.50000000  7.000000
537965.12500000 6039866.50000000 -34.20000076  7.000000
537965.12500000 6039866.00000000 -34.20000076  7.000000
537965.62500000 6039866.50000000 -34.20000076  7.000000
537966.62500000 6039867.00000000 -34.20000076  7.000000
537966.12500000 6039866.50000000 -34.09999847  7.000000
537965.62500000 6039866.00000000 -34.09999847  7.000000
537965.62500000 6039865.50000000 -34.00000000  7.000000
537965.62500000 6039865.00000000 -34.00000000  7.000000
537965.12500000 6039864.50000000 -34.09999847  7.000000
537964.62500000 6039864.00000000 -34.09999847  7.000000
537965.12500000 6039864.00000000 -34.00000000  7.000000
537966.12500000 6039865.00000000 -33.89999771  7.000000
537966.62500000 6039865.50000000 -33.79999924  7.000000
537966.12500000 6039866.00000000 -34.00000000  7.000000
537966.62500000 6039866.50000000 -34.00000000  7.000000
537967.12500000 6039867.00000000 -34.00000000  7.000000
537967.62500000 6039867.50000000 -34.00000000  7.000000
537967.62500000 6039867.00000000 -33.89999771  7.000000
537967.12500000 6039866.50000000 -33.89999771  7.000000
537966.62500000 6039866.00000000 -33.89999771  7.000000
537967.62500000 6039866.50000000 -33.70000076  7.000000
537967.62500000 6039866.00000000 -33.59999847  7.000000
537968.12500000 6039866.50000000 -33.50000000  7.000000
537968.12500000 6039867.00000000 -33.59999847  7.000000
537968.12500000 6039867.50000000 -33.79999924  7.000000
537968.12500000 6039868.00000000 -33.89999771  7.000000
537968.12500000 6039868.50000000 -34.00000000  7.000000
537968.12500000 6039869.00000000 -34.00000000  7.000000
537968.12500000 6039869.50000000 -34.00000000  7.000000
537968.12500000 6039870.00000000 -34.09999847  7.000000
537968.12500000 6039870.50000000 -34.09999847  7.000000
537968.62500000 6039870.50000000 -33.89999771  7.000000
537968.62500000 6039870.00000000 -33.79999924  7.000000
537968.62500000 6039869.50000000 -33.79999924  7.000000
537968.62500000 6039869.00000000 -33.70000076  7.000000
537968.62500000 6039868.50000000 -33.70000076  7.000000
537968.62500000 6039868.00000000 -33.59999847  7.000000
537968.62500000 6039867.50000000 -33.50000000  7.000000
537968.62500000 6039867.00000000 -33.39999771  7.000000
537968.62500000 6039866.50000000 -33.29999924  7.000000
537968.12500000 6039866.00000000 -33.39999771  7.000000
537968.12500000 6039865.50000000 -33.20000076  7.000000
537967.62500000 6039865.00000000 -33.29999924  7.000000
537967.62500000 6039864.50000000 -33.29999924  7.000000
537967.62500000 6039864.00000000 -33.20000076  7.000000
537967.12500000 6039863.50000000 -33.29999924  7.000000
537967.12500000 6039863.00000000 -33.20000076  7.000000
537966.62500000 6039862.50000000 -33.29999924  7.000000
537966.62500000 6039862.00000000 -33.29999924  7.000000
537966.62500000 6039861.50000000 -33.20000076  7.000000
537966.12500000 6039861.00000000 -33.29999924  7.000000
537966.12500000 6039860.50000000 -33.29999924  7.000000
537966.12500000 6039860.00000000 -33.20000076  7.000000
537966.12500000 6039859.50000000 -33.09999847  7.000000
537965.62500000 6039859.00000000 -33.20000076  7.000000
537965.12500000 6039858.50000000 -33.29999924  7.000000
537964.62500000 6039858.00000000 -33.39999771  7.000000
537964.62500000 6039857.50000000 -33.29999924  7.000000
537964.62500000 6039857.00000000 -33.20000076  7.000000
537964.62500000 6039856.50000000 -33.09999847  7.000000
537964.62500000 6039856.00000000 -33.00000000  7.000000
537964.62500000 6039855.50000000 -32.89999771  7.000000
537964.12500000 6039855.00000000 -33.00000000  7.000000
537964.12500000 6039854.50000000 -32.89999771  7.000000
537964.12500000 6039854.00000000 -32.79999924  7.000000
537964.12500000 6039853.50000000 -32.70000076  7.000000
537964.62500000 6039854.00000000 -32.59999847  7.000000
537964.62500000 6039854.50000000 -32.70000076  7.000000
537964.62500000 6039855.00000000 -32.79999924  7.000000
537965.12500000 6039855.50000000 -32.79999924  7.000000
537965.12500000 6039856.00000000 -32.89999771  7.000000
537965.12500000 6039856.50000000 -32.89999771  7.000000
537965.12500000 6039857.00000000 -33.00000000  7.000000
537965.12500000 6039857.50000000 -33.09999847  7.000000
537965.12500000 6039858.00000000 -33.20000076  7.000000
537965.62500000 6039858.50000000 -33.20000076  7.000000
537965.62500000 6039858.00000000 -33.09999847  7.000000
537965.62500000 6039857.50000000 -33.00000000  7.000000
537965.62500000 6039857.00000000 -32.89999771  7.000000
537965.62500000 6039856.50000000 -32.79999924  7.000000
537965.62500000 6039856.00000000 -32.70000076  7.000000
537966.12500000 6039856.50000000 -32.70000076  7.000000
537966.12500000 6039857.00000000 -32.70000076  7.000000
537966.12500000 6039857.50000000 -32.79999924  7.000000
537966.12500000 6039858.00000000 -32.89999771  7.000000
537966.12500000 6039858.50000000 -33.00000000  7.000000
537966.12500000 6039859.00000000 -33.09999847  7.000000
537966.62500000 6039859.00000000 -33.00000000  7.000000
537966.62500000 6039859.50000000 -33.00000000  7.000000
537966.62500000 6039860.00000000 -33.00000000  7.000000
537966.62500000 6039860.50000000 -33.09999847  7.000000
537966.62500000 6039861.00000000 -33.09999847  7.000000
537967.12500000 6039861.00000000 -33.00000000  7.000000
537967.12500000 6039861.50000000 -33.00000000  7.000000
537967.12500000 6039862.00000000 -33.09999847  7.000000
537967.12500000 6039862.50000000 -33.20000076  7.000000
537967.62500000 6039863.00000000 -33.09999847  7.000000
537967.62500000 6039863.50000000 -33.09999847  7.000000
537968.12500000 6039864.00000000 -33.09999847  7.000000
537968.12500000 6039864.50000000 -33.09999847  7.000000
537968.12500000 6039865.00000000 -33.20000076  7.000000
537968.62500000 6039865.50000000 -33.09999847  7.000000
537968.62500000 6039866.00000000 -33.20000076  7.000000
537969.12500000 6039866.50000000 -33.09999847  7.000000
537969.12500000 6039867.00000000 -33.20000076  7.000000
537969.12500000 6039867.50000000 -33.29999924  7.000000
537969.12500000 6039868.00000000 -33.29999924  7.000000
537969.12500000 6039868.50000000 -33.39999771  7.000000
537969.12500000 6039869.00000000 -33.50000000  7.000000
537969.12500000 6039869.50000000 -33.59999847  7.000000
537969.12500000 6039870.00000000 -33.70000076  7.000000
537969.12500000 6039870.50000000 -33.70000076  7.000000
537969.62500000 6039870.00000000 -33.50000000  7.000000
537969.62500000 6039870.50000000 -33.50000000  7.000000
537970.12500000 6039870.00000000 -33.29999924  7.000000
537969.62500000 6039869.50000000 -33.39999771  7.000000
537969.62500000 6039869.00000000 -33.29999924  7.000000
537969.62500000 6039868.50000000 -33.20000076  7.000000
537969.62500000 6039868.00000000 -33.20000076  7.000000
537969.62500000 6039867.50000000 -33.09999847  7.000000
537969.62500000 6039867.00000000 -33.09999847  7.000000
537969.62500000 6039866.50000000 -33.00000000  7.000000
537969.12500000 6039866.00000000 -33.00000000  7.000000
537969.12500000 6039865.50000000 -32.89999771  7.000000
537968.62500000 6039865.00000000 -33.00000000  7.000000
537968.62500000 6039864.50000000 -33.00000000  7.000000
537968.62500000 6039864.00000000 -32.89999771  7.000000
537968.12500000 6039863.50000000 -33.00000000  7.000000
537968.12500000 6039863.00000000 -33.00000000  7.000000
537967.62500000 6039862.50000000 -33.00000000  7.000000
537967.62500000 6039862.00000000 -33.00000000  7.000000
537967.62500000 6039861.50000000 -32.89999771  7.000000
537967.62500000 6039861.00000000 -32.89999771  7.000000
537967.12500000 6039860.50000000 -32.89999771  7.000000
537967.12500000 6039860.00000000 -32.89999771  7.000000
537967.12500000 6039859.50000000 -32.79999924  7.000000
537967.12500000 6039859.00000000 -32.79999924  7.000000
537966.62500000 6039858.50000000 -32.89999771  7.000000
537966.62500000 6039858.00000000 -32.79999924  7.000000
537966.62500000 6039857.50000000 -32.70000076  7.000000
537966.62500000 6039857.00000000 -32.59999847  7.000000
537967.12500000 6039857.50000000 -32.59999847  7.000000
537967.12500000 6039858.00000000 -32.59999847  7.000000
537967.12500000 6039858.50000000 -32.70000076  7.000000
537967.62500000 6039859.00000000 -32.59999847  7.000000
537967.62500000 6039859.50000000 -32.70000076  7.000000
